ply
format ascii 1.0
element vertex 759
property float x
property float y
property float z
property uchar red
property uchar green
property uchar blue
property float weight
end_header
0.020164527 0.5934757 -0.038827732 226 255 30 152.51620774950243
-0.047565505 0.82729745 0.11924682 255 44 0 212.56038175332847
0.022149911 0.18121502 0.056943513 0 32 255 40.13355232578207
0.0072878795 0.72292286 -0.01110796 255 152 0 185.3695530366353
0.014378545 -0.5937663 -0.068041265 0 16 255 36.205888475803825
-0.011582743 -0.57340187 -0.039168086 0 0 252 31.963480981827175
0.03077216 -0.15072264 0.039812464 0 0 164 9.177768560258077
-0.05713317 0.8672132 -0.027444853 255 4 0 222.92031865365007
-1.0778993e-05 -0.059186883 -0.0461453 0 0 180 13.254137257678641
-0.011582743 -0.67582893 -0.02143197 0 96 255 56.02320537994594
-0.021074781 0.54401124 0.02160364 170 255 86 138.7309653470401
-0.011582743 -0.44843602 -0.046410017 0 0 168 10.177585952343348
0.027935894 0.065363005 0.009464421 0 0 176 12.723696114977946
0.011277558 -0.7667785 -0.04869794 0 168 255 74.35120055942592
0.008932911 0.69777465 0.04452067 255 180 0 178.89006427927816
0.021507025 0.54181784 0.042989083 170 255 86 138.19856548140288
0.01865185 -0.1379027 0.04622243 0 0 164 9.46958333032315
0.0046596047 0.2273327 0.05164915 0 80 255 52.17188679202063
-0.037146952 0.79118234 0.09366371 255 80 0 203.19600198110106
-0.0048891567 0.7696078 -0.040945478 255 104 0 197.5214102249116
0.0072878795 0.72292286 -0.01110796 255 152 0 185.3695530366353
-0.022719814 -0.23467611 0.056811154 0 0 156 7.356625523989466
0.0046596047 0.2273327 0.05164915 0 80 255 52.17188679202063
0.031188147 -0.18169467 0.042913448 0 0 160 8.288897761828414
-0.019108301 0.81912905 0.00069090596 255 52 0 210.44228500355553
-0.05490198 0.9073747 -0.10050706 216 0 0 233.5461892202908
-0.061519936 0.9195706 0.055203933 204 0 0 236.53463127679464
-0.025726257 0.7701751 -0.09018306 255 104 0 197.61299258739515
0.023851672 0.366877 0.036900565 0 232 255 90.24939411155944
0.030620892 -0.13421558 -0.0043765553 0 0 168 10.645060060422525
0.020164527 0.64123845 0.0470544 255 236 0 164.36790271295607
0.017252624 -0.7075195 0.031436026 0 128 255 64.58184275486995
0.024418924 -0.71493155 -0.029468056 0 128 255 64.4873780575299
-0.0408341 0.8238372 0.099998035 255 48 0 211.70939402110713
0.03370297 -0.3626106 -0.014152219 0 0 144 4.5304346230871415
-0.060007256 0.8884095 0.13424121 236 0 0 228.26343524468237
0.020656144 0.60347825 0.0508739 234 255 22 154.81138503473025
0.0015018971 0.6043291 -0.009236026 238 255 18 155.22887759253265
0.00910309 -0.14843471 0.04160877 0 0 164 9.406692847320224
0.011277558 -0.6362157 -0.011788663 0 60 255 47.95367293784966
-0.011582743 -0.8101545 -0.028390275 0 208 255 84.47810767609705
-0.011582743 -0.8287603 0.010088401 0 228 255 89.05060907776503
0.026574487 -0.36453927 -0.0070804628 0 0 144 4.180179348891089
-0.006345106 -0.14556064 0.035728242 0 0 164 9.83307870620403
0.01887875 -0.18148667 -0.032115236 0 0 168 10.562790368756978
-0.043802723 0.9026854 0.03650349 220 0 0 232.25990901477928
0.011277558 -0.46560487 -0.029789498 0 0 176 12.383693765176089
-0.02459175 -0.31386465 -0.062538914 0 0 160 8.831407433616384
-0.02529136 -0.27338168 0.026406385 0 0 156 7.189669772175922
-0.026236784 -0.19260482 -0.049454276 0 0 172 11.489312914373569
0.01887875 -0.40186453 0.023286492 0 0 144 4.737210529892457
-0.024648475 -0.28431076 0.056035906 0 0 148 5.992743611380755
-0.01489172 -0.2824388 -0.06582898 0 0 164 9.380703572808919
-0.012149997 0.236768 -0.027028868 0 92 255 55.295625513554164
0.029240577 -0.02653201 -0.032966115 0 0 176 12.834859050164354
0.026952654 0.13407627 0.04595771 0 0 236 27.835741155835855
0.013527664 -0.6983489 0.05673552 0 120 255 62.99090707735768
-0.039434876 0.8491367 -0.1178461 255 20 0 218.32128379531255
-0.05713317 0.8672132 -0.027444853 255 4 0 222.92031865365007
0.032776456 -0.25861418 0.043329436 0 0 152 6.402581007324149
0.021752834 -0.43310127 0.03724092 0 0 164 9.983708993270447
-0.019108301 0.81912905 0.00069090596 255 52 0 210.44228500355553
0.011277558 -0.7318735 -0.061574582 0 136 255 66.36757900337506
0.0073067853 -0.4647351 -0.068041265 0 0 172 11.270989362320513
0.03455385 -0.56222695 0.029280465 0 0 255 32.72609153455198
-0.008746478 -0.6975736 0.05673552 0 120 255 62.43487605989485
0.0041868947 -0.35415852 -0.020845808 0 0 148 5.793802596321563
0.023794947 0.3819092 -0.043762837 0 248 255 94.8877299052148
-0.002771411 -0.2958638 -0.06601806 0 0 160 8.755062171563454
0.008895095 0.7094411 -0.020429822 255 168 0 181.85230571223676
-0.03850836 0.88789904 -0.0033365914 236 0 0 228.43323339137746
0.023076426 0.43288633 -0.021942496 50 255 206 108.6168632995819
0.011277558 -0.32827288 -0.058133252 0 0 156 7.714555930031977
-0.016612388 0.08952799 0.022870505 0 0 192 16.88629521824328
-0.004945881 0.21275428 -0.03642636 0 64 255 48.816596065908556
0.020656144 0.61232746 -0.018557886 246 255 10 157.22808635030407
0.011277558 -0.41298267 -0.007817891 0 0 148 5.783328337899706
0.02759554 -0.09827063 -0.059324477 0 0 176 12.63458171011108
0.025893785 0.22425061 -0.041947626 0 76 255 51.957855123105475
0.032700818 -0.28548306 -0.038090304 0 0 156 7.630926615053647
0.024400018 0.32813358 0.01651727 0 188 255 79.84079700846455
-0.01733091 -0.116611816 -0.018444436 0 0 172 11.955179438462356
0.020807413 0.59198195 0.053993795 222 255 34 151.89676536519713
-0.07594707 0.93163425 0.08131649 192 0 0 239.51982488200525
-0.0055698603 0.70938444 -0.003260957 255 168 0 181.81896914650642
-0.010561688 0.1522662 0.035784967 0 0 255 32.584317936923306
0.032700818 -0.28548306 -0.038090304 0 0 156 7.630926615053647
0.011277558 -0.7354472 0.026500925 0 152 255 70.45420395352106
0.025534522 0.2506468 -0.041834176 0 108 255 59.14261727086353
0.035858527 -0.51856744 0.014475158 0 0 212 21.718524612627764
-0.024799742 -0.30753034 0.008764809 0 0 152 6.389527292188933
0.035102192 -0.7822834 -0.03689907 0 184 255 78.1699547544693
-0.011582743 -0.73402905 -0.024343869 0 144 255 68.72915649690161
0.028124977 0.30495182 0.0517626 0 164 255 73.24251345238069
-0.053899832 0.9047275 -0.13229214 220 0 0 232.87871235948592
0.011277558 -0.85487294 -0.04803614 0 240 255 92.05939389482633
0.0026364033 -0.22701818 0.04395341 0 0 156 7.558274136514873
0.011277558 -0.49279523 -0.035670023 0 0 188 15.867156863292141
-0.015477882 -0.3547825 0.0035649885 0 0 144 4.765780925282742
-0.009464999 0.017902821 0.034782823 0 0 176 12.206864518730056
0.011277558 -0.85317117 0.00086108147 0 240 255 92.88651083537258
0.025383253 -0.29936185 -0.06528064 0 0 160 8.126471868836653
-0.08402097 0.95876783 0.1501054 164 0 0 246.31047267061206
0.01887875 -0.5535859 0.03506645 0 0 248 30.241092861870904
0.009178724 0.68387693 0.014512975 255 192 0 175.25767000719526
-0.01963774 0.8509519 0.086062506 255 20 0 218.79843336231525
0.025477797 0.1715717 0.056905694 0 20 255 37.62025618087264
0.011277558 -0.44446522 0.031171309 0 0 172 11.424197441934666
-0.024894284 -0.3049588 0.040096093 0 0 148 5.598962085353802
-0.011582743 -0.56657594 0.018710649 0 0 252 31.72433705368326
0.01354657 0.3666879 0.057586398 0 232 255 90.06634920651702
0.01887875 -0.33869144 -0.062784724 0 0 156 7.567516912376805
-0.0017314468 -0.5542098 -0.04259051 0 0 236 27.776939527765006
0.01887875 -0.29034254 -0.0046790913 0 0 152 6.826755190096954
-0.055109967 0.9440949 0.12461681 180 0 0 242.69646410031575
-0.0017314468 -0.41364446 -0.059229933 0 0 144 4.627931430189613
0.01887875 -0.47331953 0.013681004 0 0 184 14.707128582657354
-0.040002126 0.8065549 -0.02941133 255 64 0 207.05569465043388
-0.017841436 -0.23658586 -0.017291019 0 0 164 9.106152856901511
-0.062143907 0.969054 0.121515825 152 0 0 249.12815802102278
-0.07061489 0.914541 -0.13115764 208 0 0 235.3762388709658
-0.021452948 0.65888 0.02377811 255 220 0 168.9895569104213
-0.027484741 0.8499309 -0.05467301 255 20 0 218.5417790835017
0.0036385502 0.06003082 0.04860489 0 0 172 11.979870663788873
0.02689593 0.18645266 0.0028842848 0 36 255 41.77382052897873
0.01887875 0.71401703 -0.014114403 255 160 0 183.0701021740914
0.01887875 -0.67454314 -0.056582753 0 88 255 54.61328432541784
0.031150328 -0.17473637 0.00018037776 0 0 164 9.681900908648133
-0.08579837 0.972987 0.1355459 148 0 0 250.01826030201238
-0.043821633 0.8916996 0.121288925 232 0 0 229.20916059740568
-0.016896017 0.70017606 0.029583002 255 176 0 179.43520499691374
-0.009578449 0.35982412 -0.02856045 0 224 255 88.80065140141247
-0.0032063057 -0.5627753 -0.06698239 0 0 240 28.841769214020644
0.020561604 0.2571324 0.057208233 0 112 255 60.16984014240402
0.022830617 -0.50544494 -0.057244554 0 0 192 16.748077942547795
0.019124562 -0.43467066 -0.03570784 0 0 160 8.218897963290347
0.009311083 0.67185116 0.023967193 255 204 0 172.1928494053261
0.011277558 -0.3383889 0.021055294 0 0 144 4.26724350171224
0.033041175 -0.37631923 -0.03873319 0 0 144 4.923227634734911
0.025402162 0.25664076 -0.009387292 0 112 255 60.554541980799954
-0.011582743 -0.6323584 0.044804294 0 60 255 47.523832271135575
0.032908812 -0.16015795 -0.01780155 0 0 168 10.549710026971818
0.011277558 -0.21862285 -0.06149895 0 0 168 10.48243446755618
0.030923428 -0.5115335 -0.059400108 0 0 196 17.18641750309099
0.01887875 -0.8272855 -0.006532118 0 220 255 87.93739544022927
0.03143395 -0.23562154 0.055449747 0 0 152 6.779348104036664
-0.033894703 0.7842618 0.003262454 255 88 0 201.2893873985111
0.0098216105 -0.3536669 -0.0472609 0 0 152 6.796795216412698
0.02519417 0.2718621 -0.004716908 0 128 255 64.66644227840563
0.01887875 -0.47507802 -0.06397595 0 0 176 12.47294463162392
0.01887875 -0.43491644 0.013510828 0 0 164 9.612644992142886
0.02689593 0.18645266 0.0028842848 0 36 255 41.77382052897873
-0.011582743 -0.42277727 -0.026215803 0 0 152 6.970830328780195
0.010388862 0.59012896 0.036560215 222 255 34 151.49896321502857
-0.018862493 0.30610526 0.021868357 0 164 255 73.84406272792339
0.01887875 -0.46397874 -0.03497041 0 0 172 11.902521909866167
0.014113826 0.24418013 -0.04866012 0 100 255 57.438039051388785
-0.002109615 0.16066153 0.045409363 0 8 255 34.7633431184314
0.024778185 0.30345806 -0.010465073 0 164 255 73.30637081560972
0.032776456 -0.28924587 -0.053443957 0 0 156 7.898574371962983
-0.011582743 -0.55201644 0.0253286 0 0 240 28.477423449507167
0.020618329 0.35405707 0.05754858 0 216 255 86.60447200067772
0.03207684 -0.703265 -0.040548403 0 116 255 61.473993486690695
-0.027484741 0.8499309 -0.05467301 255 20 0 218.5417790835017
0.013886923 -0.8171506 -0.062803626 0 208 255 84.18275821825188
-0.010996582 -0.20067874 0.050646998 0 0 160 8.126741463667338
0.011277558 -0.37053323 -0.04985135 0 0 152 6.342261660206473
0.016704282 0.70513004 0.04834017 255 172 0 180.8317594731698
-0.078632064 0.94076705 0.09708613 184 0 0 241.82601228698508
-0.018522142 0.11830664 -0.013641691 0 0 220 23.588956906274603
-0.016858198 0.69648886 -0.007723349 255 180 0 178.5670430754783
-0.037146952 0.79118234 0.09366371 255 80 0 203.19600198110106
0.024683641 0.30948988 -0.0004625088 0 168 255 74.88061158360689
0.024021845 0.35802782 0.0071386835 0 224 255 88.04205814449801
-0.025310269 -0.27489436 0.055525377 0 0 152 6.372839039336314
0.01887875 -0.40186453 0.023286492 0 0 144 4.737210529892457
0.0019367901 -0.56222695 -0.0065132086 0 0 248 30.636065930482868
-0.010996582 0.22765413 -0.029033162 0 80 255 52.82737500368808
-0.053937644 0.94067246 0.08857733 184 0 0 241.93166683396424
-0.024743017 -0.30505332 -0.04918956 0 0 160 8.424705325703936
-0.0070258095 0.41811883 0.044426125 34 255 222 104.2025508252333
0.013868017 0.6509574 -0.03714488 255 224 0 167.0581262900832
-0.08579837 0.9655371 0.12879558 156 0 0 248.11197855254673
0.032039028 -0.5637775 -0.04695836 0 0 248 30.96444907591526
0.023208786 0.42411283 -0.03317411 42 255 214 106.30463164506472
-0.02436485 -0.3450636 0.042894542 0 0 140 3.317495028598882
-0.028770514 0.76690394 -0.036029283 255 108 0 196.72114626083422
-0.011582743 -0.55746204 -0.05467301 0 0 236 27.872242964578312
0.01887875 -0.8261699 0.025139518 0 224 255 88.21328747362762
-0.025669532 -0.23702075 -0.03536749 0 0 164 9.748351041915496
0.024418924 -0.24883854 0.055393018 0 0 152 6.527806142012415
0.011145199 0.090794854 -0.050683323 0 0 196 17.906042657811895
0.035858527 -0.5370977 0.018427022 0 0 232 26.552872489848443
-0.010353695 -0.058600727 -0.033798087 0 0 180 13.07932165163465
0.014643263 0.7177041 -0.025119115 255 156 0 184.01128768299924
0.0076660477 -0.27139628 0.05588464 0 0 152 6.1106647231561615
-0.052632965 0.92582935 -0.10807043 196 0 0 238.41564433546313
-0.0042273602 0.38268444 -0.034100622 0 252 255 95.05650292588705
-0.006439648 0.70860916 0.031965464 255 168 0 181.6624710114585
-0.04540994 0.8235158 0.075606145 255 48 0 211.58744396436202
-0.016612388 0.08952799 0.022870505 0 0 192 16.88629521824328
0.01887875 -0.5786206 0.023267582 0 12 255 35.81427036508485
-0.062143907 0.969054 0.121515825 152 0 0 249.12815802102278
-0.016631298 0.10119449 0.023154132 0 0 204 19.446429304570444
0.0029578465 -0.21875522 0.056054812 0 0 156 7.46107022256179
0.033154625 -0.32728964 0.030604057 0 0 144 4.14568785221943
-0.013530313 0.411066 -0.022434115 26 255 230 102.71084601540113
0.0015397125 -0.36692172 0.044917744 0 0 132 1.2432423862905488
-0.011582743 -0.54087937 -0.04814959 0 0 224 24.06151670449315
-0.011582743 -0.43018934 0.043442886 0 0 164 9.614805079119622
0.03425131 -0.7217008 0.024118463 0 140 255 67.82367066890667
-0.06467764 0.9015131 0.11782869 224 0 0 231.67742442059674
0.01887875 -0.7767621 0.028959021 0 188 255 79.13929128903078
0.01887875 -0.7211524 -0.05304688 0 128 255 64.56709159080079
-0.011582743 -0.32573915 -0.00042469162 0 0 148 5.81925767366836
0.012090622 -0.40411463 -0.06698239 0 0 148 5.312121506331455
0.01887875 -0.69449157 0.00014256148 0 116 255 61.20322042674414
0.0015018971 0.6043291 -0.009236026 238 255 18 155.22887759253265
0.03362734 -0.3527026 -0.050210614 0 0 152 6.51090487596024
0.0047352393 0.73209345 -0.019994928 255 144 0 187.74319905924912
-0.013624855 0.114581674 0.029545182 0 0 216 22.523032199040003
0.013830198 -0.32326216 0.013662095 0 0 148 5.196515248935585
0.011617911 -0.56222695 -0.0396597 0 0 248 30.231101211479288
0.011277558 -0.19619744 0.029148106 0 0 160 8.464688568926617
0.009329989 0.6739501 0.005380199 255 204 0 172.77149976191663
0.031566314 -0.19988458 -0.0392059 0 0 168 10.056672670780445
0.035858527 -0.42336342 -0.0023911693 0 0 156 7.433078956807795
0.020561604 -0.50544494 -0.00795025 0 0 200 18.39307903277206
-0.011582743 -0.838536 0.017462691 0 232 255 90.84055233696135
-0.013511404 -0.09057488 -0.028447 0 0 176 12.53787205334759
0.011277558 -0.19619744 0.029148106 0 0 160 8.464688568926617
0.021223396 -0.22028679 0.045295913 0 0 156 7.472125274785559
0.032549553 -0.27175555 -0.04892484 0 0 160 8.34694385870709
0.011277558 -0.37053323 -0.04985135 0 0 152 6.342261660206473
0.00014048791 0.14037278 -0.04230689 0 0 244 29.764668871079184
0.017498437 -0.33315125 0.052443303 0 0 140 3.085396345613681
-0.011582743 -0.42277727 -0.026215803 0 0 152 6.970830328780195
0.01887875 -0.48708484 -0.06382468 0 0 184 14.028844630306292
-0.02056425 0.15105605 -0.0022209939 0 0 255 32.367796676238356
-0.017104007 -0.29911605 0.009918224 0 0 152 6.615043368058204
0.019918714 0.6686746 -0.027255768 255 208 0 171.49649594265654
0.033116806 -0.32730854 0.050231017 0 0 140 3.320145212351155
-0.020639885 0.49948186 0.021754906 122 255 134 126.58205040358267
0.011277558 -0.44450304 -0.018595701 0 0 168 10.060405394269518
0.01887875 -0.5439425 0.02366466 0 0 236 27.720760624713677
0.02180956 0.5826223 -0.020845808 214 255 42 149.72200710434262
0.01829259 0.6978692 0.011771251 255 180 0 178.8923941111483
-0.011582743 -0.435635 -0.04213671 0 0 160 8.699489024798359
0.032852087 -0.30178216 0.008065197 0 0 148 5.967629687986371
0.020296887 0.63454485 0.025271876 255 244 0 162.73192140040047
0.01887875 -0.46469727 -0.0573391 0 0 172 11.363583537501981
0.009235448 -0.49604744 -0.019049505 0 0 192 16.885592940350996
0.0050945 0.67067885 0.05656534 255 208 0 171.8356262696727
0.01887875 -0.49597183 0.05352108 0 0 200 18.82143526375175
0.01887875 -0.8259052 -0.024892211 0 220 255 87.21524741042613
0.009462348 0.66186756 0.015061319 255 216 0 169.6917282961037
-0.055109967 0.9440949 0.12461681 180 0 0 242.69646410031575
0.011277558 -0.25725278 0.027767792 0 0 156 7.1097681881898005
0.035858527 -0.4141739 -0.023077002 0 0 148 5.14820452094281
-0.0070825345 0.7886486 -0.043951917 255 84 0 202.51968507251465
-0.018692316 0.7309968 -0.025629641 255 144 0 187.39427012505342
0.020296887 -0.39229685 -0.06698239 0 0 148 5.781883842140225
0.020883048 -0.5048588 0.047224574 0 0 204 19.737248903593848
-0.01937302 -0.024168458 0.008481183 0 0 176 12.485801975215796
0.031490676 -0.20309901 0.028524129 0 0 160 8.10860039422713
-0.0068367254 0.6340721 -0.019786935 255 244 0 162.79535939389285
-0.008065774 -0.7700875 0.05673552 0 180 255 77.80401139095916
-0.011582743 -0.22758545 -0.0041496544 0 0 160 8.892741921763188
0.022471355 0.46756443 0.053161826 86 255 170 117.87071584789032
-0.022322737 0.46208096 0.0064768884 82 255 174 116.39868813236703
-0.011582743 -0.6485062 -0.046542376 0 68 255 49.08557848364635
0.0049810484 -0.87126654 0.021565823 2 255 254 96.65514701855821
0.03207684 -0.2433929 -0.0011810297 0 0 156 7.934989644093121
0.003752 0.213435 0.050741542 0 64 255 48.54220178156957
0.026404312 -0.4429904 -0.04680709 0 0 160 8.817019057652708
-0.011582743 -0.81450343 -0.061290957 0 204 255 83.68708981621288
-0.019165028 0.029266795 0.012792307 0 0 180 13.08862932995582
-0.028770514 0.76690394 -0.036029283 255 108 0 196.72114626083422
-0.0017314468 -0.55647886 -0.057017654 0 0 236 27.966068622319707
-0.011393659 0.6537558 -0.021602144 255 224 0 167.78707077228464
0.01887875 -0.26838985 -0.0015024729 0 0 156 7.400487937275914
-0.034537587 0.87218606 0.07747808 252 0 0 224.27644056196561
0.011277558 -0.44450304 -0.018595701 0 0 168 10.060405394269518
0.033116806 -0.32730854 0.050231017 0 0 140 3.320145212351155
0.011277558 -0.26301986 0.0063256207 0 0 156 7.470161559352163
0.020032167 0.65853965 -0.007156097 255 220 0 168.88217163119575
0.026271952 0.19276807 0.039150674 0 44 255 43.241042134187076
0.014643263 0.7177041 -0.025119115 255 156 0 184.01128768299924
0.004640697 -0.2250328 -0.068041265 0 0 168 10.60712873341118
0.023397868 -0.38745627 0.05609263 0 0 136 2.630711350335898
-0.0042273602 0.38268444 -0.034100622 0 252 255 95.05650292588705
-0.004681163 -0.2149357 -0.0665475 0 0 172 11.0271208679771
-0.011582743 -0.3108204 -0.056053326 0 0 160 8.39120067924584
0.02689593 0.18645266 0.0028842848 0 36 255 41.77382052897873
-0.0068934504 -0.25411397 0.050798267 0 0 152 6.869941952141064
0.022773892 0.44793746 0.027313989 66 255 190 112.57811001180245
-0.0020717995 -0.6281607 -0.068041265 0 44 255 43.57743990125272
-0.022284921 0.8317977 -0.06866524 255 40 0 213.80955772214256
-0.032703467 0.865814 0.07087903 255 4 0 222.6403660561352
0.0026364033 -0.22701818 0.04395341 0 0 156 7.558274136514873
0.0038843593 0.5959527 -0.03548094 230 255 26 153.17348660337865
-0.018597774 -0.040202808 0.012622131 0 0 176 12.133020497606273
0.030469622 0.13630748 -0.027917564 0 0 240 28.74791692962931
-0.011393659 0.6537558 -0.021602144 255 224 0 167.78707077228464
-0.02035626 0.040158056 0.002506116 0 0 180 13.552906575876055
-0.007195986 -0.2518639 -0.010067996 0 0 160 8.425663885101933
0.009424533 0.6007933 0.058021292 234 255 22 154.14161828203012
0.033154625 -0.32728964 0.030604057 0 0 144 4.14568785221943
0.01887875 -0.39123797 -0.047015086 0 0 144 4.695960856631799
0.011277558 -0.39587057 -0.03249341 0 0 140 3.6945674997029463
0.01887875 -0.33867252 0.03251381 0 0 140 3.6121114214877887
-0.018427597 -0.3009502 -0.010975601 0 0 156 7.197073645026072
0.032908812 -0.16015795 -0.01780155 0 0 168 10.549710026971818
0.01887875 -0.81889015 0.04667623 0 216 255 86.72933101892926
-0.060271975 0.876951 0.039944824 248 0 0 225.44604278742102
0.01865185 -0.1379027 0.04622243 0 0 164 9.46958333032315
0.022206636 0.4946413 -0.0005381422 118 255 138 125.23335733060159
0.01887875 -0.80404705 -0.028881893 0 204 255 83.19126165427421
0.031868853 -0.2203057 -0.058643777 0 0 168 10.003272924317056
0.030053644 -0.295826 0.055241752 0 0 148 5.009393138120441
-0.013511404 -0.09057488 -0.028447 0 0 176 12.53787205334759
-0.011582743 -0.5988905 -0.0031096903 0 24 255 38.763754304388854
0.035858527 -0.5405579 0.04450176 0 0 240 28.069573067315872
0.014113826 0.24418013 -0.04866012 0 100 255 57.438039051388785
-0.0035466568 -0.43467066 -0.05851142 0 0 156 7.970925636524261
0.030961247 -0.15361564 -0.04504861 0 0 172 11.434906347709159
0.032700818 -0.050356645 0.031984374 0 0 168 10.799574510049572
0.00885728 0.1583169 -0.047979414 0 8 255 34.50672212293027
-0.014381193 -0.28769538 0.05599809 0 0 148 5.755823008507195
0.033116806 -0.32730854 0.050231017 0 0 140 3.320145212351155
0.01887875 -0.79060316 -0.06083715 0 184 255 78.72305018377577
-0.039434876 0.8491367 -0.1178461 255 20 0 218.32128379531255
0.010426678 0.29961964 0.055430837 0 156 255 71.81047230841132
0.0064369994 0.58731157 -0.03109418 218 255 38 150.971515906281
0.002504044 -0.48300067 -0.068041265 0 0 180 13.63633286264856
-0.030339915 0.77775735 0.08016308 255 96 0 199.69596878589152
0.030204905 -0.10435915 0.0037918899 0 0 168 10.836615508453402
0.011277558 -0.71529084 0.049796123 0 136 255 66.50450655071387
-0.0020717995 -0.6281607 -0.068041265 0 44 255 43.57743990125272
-0.011582743 -0.7789366 -0.06068588 0 176 255 76.2624481791062
0.011277558 -0.314205 0.047848552 0 0 144 4.509551008702666
0.026290858 0.43772689 0.05382362 54 255 202 109.78458834621622
0.031188147 -0.18169467 0.042913448 0 0 160 8.288897761828414
-0.011582743 -0.6813124 -0.055013355 0 92 255 55.94628764491921
-0.013038693 0.32716927 0.035142083 0 188 255 79.48311456309965
0.016326113 0.70426023 -0.035859108 255 172 0 180.52327642023957
0.027973713 0.06570336 -0.021129433 0 0 180 13.631886212107855
-0.0011263775 -0.5566868 0.04533373 0 0 248 30.438532799539484
0.030412897 -0.11767068 -0.0059837736 0 0 168 10.90560682262483
0.014926887 -0.35328874 0.05673552 0 0 132 1.2840452310818289
0.0011426366 -0.33785945 0.05673552 0 0 136 2.8297929873901078
-0.025385903 -0.25511613 -0.06219856 0 0 168 10.157527764107146
-0.0010885603 -0.3066038 0.05673552 0 0 144 4.760330782872258
-0.01950538 0.2872346 -0.00978437 0 144 255 68.92227958894796
0.011277558 -0.29382172 0.0038675233 0 0 152 6.629197096669246
-0.025499355 -0.2564019 0.020128781 0 0 156 7.738100545245266
-0.0014667284 0.61365104 0.049039785 246 255 10 157.44181846940737
-0.05760588 0.95593154 -0.07153933 164 0 0 246.2794526234269
0.020750688 -0.80520046 -0.040416043 0 200 255 82.83260067952385
-0.023532877 0.8343125 0.022549061 255 36 0 214.3968351133151
-0.011582743 -0.62772584 -0.06359778 0 44 255 43.54076501928562
-0.025121186 -0.27417582 -0.06314398 0 0 164 9.70602298933209
-0.0215664 0.60724103 -0.0018428247 242 255 14 156.00227526681616
-0.036409527 0.79235464 0.043197077 255 80 0 203.4464522504776
0.011277558 -0.3383889 0.021055294 0 0 144 4.26724350171224
-0.009786442 -0.18464439 0.030206978 0 0 164 9.016818782172605
0.020202342 -0.7834746 0.0396612 0 192 255 80.29285095789471
-0.025366995 -0.2641733 -0.003695852 0 0 160 8.164519687441503
-0.017898161 -0.15960962 -0.016780492 0 0 172 11.206576167773894
-0.011393659 0.07644335 0.032816343 0 0 184 14.47237971591988
0.0058508376 0.6558925 -0.035083864 255 220 0 168.3199366042959
0.03351388 -0.34667078 -0.029260062 0 0 148 5.971031242516761
-0.025574988 -0.24333617 -0.04537005 0 0 164 9.909255887529188
-0.009824259 -0.35442325 -0.015267815 0 0 148 5.690897250949147
0.005737386 0.16120988 0.051611334 0 8 255 34.877132106968574
-0.024743017 -0.30796522 -0.017536832 0 0 156 7.188654631146794
-0.0016936297 -0.16010122 0.017103432 0 0 164 9.976353381223321
-0.015213164 -0.07448382 0.022624696 0 0 172 11.38388968641579
0.011996079 -0.26082647 -0.068041265 0 0 164 9.51554758478958
0.011277558 -0.48670667 0.004264601 0 0 192 16.337110578147385
-0.025593897 -0.24500012 -0.016043061 0 0 160 8.97599014281419
-0.020923514 0.82453686 0.05115753 255 48 0 211.88310628534407
0.011277558 -0.29382172 0.0038675233 0 0 152 6.629197096669246
-0.036296073 0.87869066 0.06348584 248 0 0 225.97298418981967
-0.015761508 0.8085781 -0.061442226 255 64 0 207.7305737199233
0.01887875 -0.5386671 -0.038128123 0 0 224 24.805861375356137
-0.04805712 0.9222935 -0.029165521 200 0 0 237.44960284883226
-0.04264931 0.83680844 -0.09330294 255 32 0 215.04546030595938
-0.017822528 0.16366798 0.021074204 0 12 255 35.617379602071374
0.033608425 -0.7941579 0.022038534 0 200 255 82.19880653089855
0.01887875 -0.5529619 0.018067762 0 0 244 29.697100418514157
0.0046785143 -0.17880166 -0.023738798 0 0 168 10.577045611470933
0.03455385 -0.56222695 0.029280465 0 0 255 32.72609153455198
-0.016990555 0.81184924 -0.010067996 255 60 0 208.546467527518
0.01887875 -0.25916255 -0.04693945 0 0 160 8.901475462944934
-0.002714686 -0.5234836 0.0472813 0 0 216 22.593852431229482
-0.015042988 -0.11980735 0.02181163 0 0 168 10.807242985233545
0.014113826 0.24418013 -0.04866012 0 100 255 57.438039051388785
-0.011582743 -0.28124762 -0.021167252 0 0 160 8.014380329233436
-0.011582743 -0.6813124 -0.055013355 0 92 255 55.94628764491921
-0.0026012347 -0.2678037 0.011468717 0 0 156 7.385811660659714
-0.011696194 0.68007636 -0.020826899 255 196 0 174.43940642775553
-0.039434876 0.8491367 -0.1178461 255 20 0 218.32128379531255
-0.034461953 0.7811609 0.120381325 255 92 0 200.61026137835555
-0.015042988 -0.11980735 0.02181163 0 0 168 10.807242985233545
0.026271952 -0.4165564 0.0472813 0 0 156 7.9614149299972645
-0.014419009 0.715265 0.0027897428 255 160 0 183.3399499579524
-0.030339915 0.77775735 0.08016308 255 96 0 199.69596878589152
-0.03476449 0.87388784 0.034404654 252 0 0 224.73516448720684
0.006455907 -0.4429904 -0.00674011 0 0 168 10.284638398444596
0.022773892 0.44793746 0.027313989 66 255 190 112.57811001180245
-0.00435972 0.3900587 0.046714045 2 255 254 96.51652202228544
-0.062143907 0.969054 0.121515825 152 0 0 249.12815802102278
-0.021452948 0.31368753 0.0020144961 0 176 255 76.0446554958864
0.022603713 0.29780445 -0.047582343 0 160 255 72.02064311308453
-0.019675557 0.018243173 -0.007401906 0 0 180 13.529064075016514
0.025307622 0.2582669 0.030131344 0 112 255 60.7295789208716
-0.00072929985 0.7560316 0.02559332 255 116 0 194.0353160809479
-0.018938126 -0.0885706 -0.011637397 0 0 176 12.171837160728268
-0.0017314468 -0.5256013 -0.01886042 0 0 212 21.32143139701398
0.011277558 -0.7780668 0.019240085 0 188 255 79.45494356745853
0.032039028 -0.5637775 -0.04695836 0 0 248 30.96444907591526
-0.024421575 -0.330315 -0.03302284 0 0 156 7.186076838599057
-0.0037546502 -0.5696202 -0.00078395207 0 0 255 32.279376228435666
-0.009824259 -0.35442325 -0.015267815 0 0 148 5.690897250949147
-0.026955305 0.84497684 -0.07002666 255 24 0 217.25310247949517
-0.011582743 -0.59389865 -0.021507604 0 20 255 37.16640493257124
-0.031190796 0.86248606 -0.027369218 255 8 0 221.8046620209819
0.026101774 -0.5048588 0.0068172403 0 0 200 18.620077880210108
0.015910126 0.46658117 -0.04259051 86 255 170 117.91267944820261
0.025402162 0.25664076 -0.009387292 0 112 255 60.554541980799954
0.02969438 -0.06667462 0.01044766 0 0 172 11.170363923849582
0.016685372 -0.37573308 -0.057206735 0 0 152 6.290820636679616
-0.00435972 0.3900587 0.046714045 2 255 254 96.51652202228544
0.03211466 -0.23949777 -0.053576313 0 0 164 9.378861341465894
0.023776038 -0.57211614 0.042762183 0 8 255 34.90013420418924
0.011277558 -0.32827288 -0.058133252 0 0 156 7.714555930031977
0.01887875 -0.36542797 -0.054805364 0 0 152 6.570603489301089
0.027217373 0.12445187 -0.04017023 0 0 228 25.662027990991657
0.028522056 0.022232855 0.0065147053 0 0 176 12.445019932494786
-0.014211017 0.8017522 0.0029977355 255 72 0 205.8970359781056
0.006002105 -0.36692172 -0.04151273 0 0 152 6.192698103303453
-0.011582743 -0.58410406 0.019372445 0 12 255 35.83542856679688
0.028805682 -0.002083401 0.02998008 0 0 172 11.535458562892744
-0.0016179953 -0.19763449 0.049361225 0 0 160 8.11973199806949
-0.011582743 -0.3903871 0.0096724145 0 0 136 2.0126884993057588
0.025988325 -0.36692172 -0.022585385 0 0 144 4.8653396335902785
-0.0029037702 -0.3110284 0.037014015 0 0 148 5.227502012808319
-0.014929538 0.71630496 0.03975574 255 160 0 183.66013542353318
0.011277558 -0.32827288 -0.058133252 0 0 156 7.714555930031977
-0.026236784 -0.19260482 -0.049454276 0 0 172 11.489312914373569
0.024683641 0.30948988 -0.0004625088 0 168 255 74.88061158360689
0.031566314 -0.19988458 -0.0392059 0 0 168 10.056672670780445
0.011277558 -0.62492734 -0.06471338 0 44 255 43.280266517886346
-0.059421092 0.9444542 0.14257984 180 0 0 242.72364990990891
0.011277558 -0.5368708 0.053010557 0 0 232 26.46414583557139
-0.011582743 -0.47290352 0.050552458 0 0 188 15.919406671311059
0.023435684 0.4003071 0.01978843 14 255 242 99.46558326352158
0.016288295 0.7169289 0.042497464 255 160 0 183.90020129943142
0.01887875 -0.40186453 0.023286492 0 0 144 4.737210529892457
-0.048775647 0.83554155 0.07154083 255 36 0 214.71078994280887
0.00910309 -0.14843471 0.04160877 0 0 164 9.406692847320224
-0.011582743 -0.69475627 0.03506645 0 116 255 61.37417017604934
0.0058130207 -0.75255936 -0.068041265 0 152 255 70.36527094270694
0.01865185 -0.1379027 0.04622243 0 0 164 9.46958333032315
-0.011582743 -0.36285642 -0.03192615 0 0 152 6.189572800266235
-0.048151664 0.8342747 -0.10837297 255 36 0 214.36341866763493
-0.016064044 -0.33362398 -0.06662314 0 0 160 8.388737714125988
0.024362199 0.26078174 -0.048679028 0 116 255 61.9487533118609
0.01887875 -0.8407294 0.034518104 0 232 255 90.80591772204625
0.009840516 0.6308388 0.043631967 255 248 0 161.77308242257953
-0.048189484 0.863337 0.12450336 255 8 0 221.8556254289754
0.0036385502 0.06003082 0.04860489 0 0 172 11.979870663788873
-0.0075930636 0.77737916 0.048056543 255 96 0 199.6141051506376
-0.052557334 0.8514435 -0.048452128 255 20 0 218.81174668728744
0.023114242 0.42791343 -0.008725496 46 255 210 107.17364561929838
-0.011582743 -0.55201644 0.0253286 0 0 240 28.477423449507167
0.011277558 -0.68331665 -0.056582753 0 96 255 56.44682206723554
-0.008330492 0.14167747 0.038224157 0 0 244 29.783973192288837
0.023586953 0.5057216 0.045050103 130 255 126 128.19681027613265
0.01887875 -0.19258593 -0.02409806 0 0 164 9.993655711190282
0.016893366 -0.07387874 0.054825764 0 0 168 10.134114617977957
-0.018824676 0.61788654 0.030755324 250 255 6 158.60228775393185
-0.039661776 0.8925316 -0.02842809 232 0 0 229.66434317820432
-0.0015612704 -0.17526579 -0.06276581 0 0 176 12.081284916764407
-0.044313252 0.91047573 -0.09976963 212 0 0 234.41307306252895
0.007325695 0.72307414 -0.027009958 255 152 0 185.389310010894
-0.0037546502 -0.5253555 -0.059853915 0 0 204 19.738134239704497
0.011277558 -0.41266125 0.03247599 0 0 156 7.145639278161701
-0.011582743 -0.6092523 -0.011864298 0 32 255 40.97979385765083
-0.003433207 -0.35491487 0.02183054 0 0 140 3.706061891650797
-0.0026012347 -0.36692172 0.007327768 0 0 140 3.75283909102334
0.0032603804 0.71545404 -0.047241986 255 160 0 183.41439807119679
0.01887875 -0.797032 0.050703727 0 200 255 82.70747539477287
0.011277558 -0.41298267 -0.007817891 0 0 148 5.783328337899706
0.002598586 0.18609339 -0.043346852 0 36 255 41.74310668826793
0.0023338676 -0.34797546 0.04208148 0 0 136 2.8498811306074967
-0.06428056 0.89332575 -0.06573444 232 0 0 229.7800892255124
0.025288714 0.25923124 0.042459644 0 112 255 60.87314316070904
0.03478075 -0.2566666 -0.017101936 0 0 156 7.970664362521682
0.025439981 0.25181913 0.01093928 0 108 255 59.104348118231016
0.03629343 -0.3548203 -0.004111837 0 0 144 4.4810488441028635
-0.0017314468 -0.39454696 -0.01802845 0 0 140 3.1742519727264007
0.011277558 -0.21862285 -0.06149895 0 0 168 10.48243446755618
0.029051492 -0.0141091645 -0.024986755 0 0 176 12.77701265316026
-0.011393659 0.6537558 -0.021602144 255 224 0 167.78707077228464
-0.0016179953 -0.19763449 0.049361225 0 0 160 8.11973199806949
-0.059042923 0.8743984 -0.046088573 252 0 0 224.81416575759172
-0.066814296 0.9216695 -0.11945332 200 0 0 237.26066014082716
0.007325695 0.72307414 -0.027009958 255 152 0 185.389310010894
0.011277558 -0.3056584 -0.013755143 0 0 152 6.727595881538583
0.009273264 0.036773443 -0.05096695 0 0 184 14.549092758575165
-0.036314983 0.7924114 0.023513392 255 80 0 203.43660038999818
0.035858527 -0.5405579 0.04450176 0 0 240 28.069573067315872
-0.036314983 0.7924114 0.023513392 255 80 0 203.43660038999818
0.009178724 0.68387693 0.014512975 255 192 0 175.25767000719526
-0.0068367254 0.6340721 -0.019786935 255 244 0 162.79535939389285
-0.0051727826 -0.45225555 -0.068041265 0 0 164 9.932675690320862
-0.08579837 0.9655371 0.12879558 156 0 0 248.11197855254673
-0.0017314468 -0.54952055 0.00010474431 0 0 236 27.68138313777723
-0.010353695 -0.058600727 -0.033798087 0 0 180 13.07932165163465
0.0075525977 -0.3552174 0.05123316 0 0 132 1.6091241756726904
0.036709413 -0.35177606 0.020525858 0 0 140 3.195462595655506
-0.013038693 0.32716927 0.035142083 0 188 255 79.48311456309965
-0.026085516 0.7565232 0.0062310784 255 116 0 194.07745275448482
0.011277558 -0.8224071 0.04013391 0 220 255 87.51600873487251
0.026858114 -0.5278137 0.05609263 0 0 224 24.935087164198542
0.011277558 -0.41298267 -0.007817891 0 0 148 5.783328337899706
0.035858527 -0.5405579 0.04450176 0 0 240 28.069573067315872
-0.013624855 0.114581674 0.029545182 0 0 216 22.523032199040003
0.030167092 -0.2863718 0.055279568 0 0 148 5.3809214414564055
0.01887875 -0.3981585 0.0007665394 0 0 136 2.6805431257067442
-0.008746478 -0.84753644 0.041287325 0 240 255 92.35491642589616
0.016704282 0.70513004 0.04834017 255 172 0 180.8317594731698
-0.009805351 0.78679556 -0.027898654 255 84 0 202.007095434436
0.011277558 -0.21520041 0.038356517 0 0 156 7.8449366498157165
-0.012963059 0.65557104 -0.00844187 255 220 0 168.2157332097387
0.022603713 0.36844638 -0.04550241 0 236 255 91.2358182987227
-0.011582743 -0.7928911 -0.016704857 0 196 255 81.46387105245965
-0.011582743 -0.67582893 -0.02143197 0 96 255 56.02320537994594
0.03258737 -0.37408805 0.0459388 0 0 128 0.0
-0.022284921 0.8317977 -0.06866524 255 40 0 213.80955772214256
0.02243354 0.47951454 -0.010086903 102 255 154 121.1507463479347
-0.018862493 -0.28357333 -0.0024289864 0 0 156 7.564398266002073
-0.020980239 0.29759645 -0.0021075432 0 156 255 71.69207025277129
0.02232009 0.48885536 -0.020940349 110 255 146 123.68260792451782
-0.0037546502 -0.50003713 0.01954262 0 0 200 18.78130224562313
-0.009578449 0.35982412 -0.02856045 0 224 255 88.80065140141247
0.01887875 -0.36092776 0.0007287231 0 0 144 4.160075396100296
0.011277558 -0.70086366 -0.037939038 0 116 255 61.09009710445558
0.021223396 -0.22028679 0.045295913 0 0 156 7.472125274785559
0.0022204162 -0.25451106 -0.051761106 0 0 164 9.397222080768143
-0.022322737 0.46208096 0.0064768884 82 255 174 116.39868813236703
0.017668612 -0.48387045 0.05673552 0 0 196 17.41417188172121
0.007193336 0.50698847 -0.039168086 130 255 126 128.6255659068615
-0.087802656 0.9776007 -0.11240047 144 0 0 251.8595463989639
0.01354657 0.3666879 0.057586398 0 232 255 90.06634920651702
0.031415045 -0.19226447 -0.011429403 0 0 164 9.48221268322488
0.02846533 0.028945353 -0.022887917 0 0 180 13.311429487530768
0.01829259 0.6978692 0.011771251 255 180 0 178.8923941111483
-0.022871083 0.5681762 0.008972802 198 255 58 145.53571194679242
-0.011582743 -0.6759991 -0.033514462 0 92 255 55.81049173020304
-0.0051727826 -0.45225555 -0.068041265 0 0 164 9.932675690320862
-0.05490198 0.9073747 -0.10050706 216 0 0 233.5461892202908
-0.0037546502 -0.50003713 0.01954262 0 0 200 18.78130224562313
0.01887875 -0.33867252 0.03251381 0 0 140 3.6121114214877887
0.035858527 -0.5370977 0.018427022 0 0 232 26.552872489848443
0.042835742 -0.5943902 0.007252134 0 28 255 39.855030910701714
0.002844395 0.7417557 -0.018349893 255 132 0 190.26096182468672
-0.0022419742 -0.26755786 -0.060780425 0 0 164 9.391548940164377
0.0012939036 -0.37573308 -0.024665313 0 0 144 4.867358266489184
-0.019089393 -0.23790944 -0.0018239162 0 0 160 8.693111942136687
0.011277558 -0.73716784 -0.034535516 0 144 255 68.87677464419306
0.025364347 0.26288056 -0.033665728 0 120 255 62.41755542410605
0.007836223 -0.3849793 -0.05949465 0 0 152 6.129639539572752
-0.021528583 0.46561685 0.016819805 86 255 170 117.42140444340444
0.011277558 -0.62419 -0.019541126 0 52 255 45.046099345558055
0.0073067853 -0.4647351 -0.068041265 0 0 172 11.270989362320513
-0.013624855 0.7999937 -0.013830774 255 72 0 205.44832367324346
-0.07303517 0.92028916 0.1306108 204 0 0 236.46263281534513
-0.0017314468 -0.5377217 -0.05011607 0 0 220 23.533297222897186
-0.04578811 0.8271273 -0.031604707 255 44 0 212.4384583232333
0.030185997 -0.09594489 -0.046920545 0 0 176 12.265922428306618
0.011277558 -0.60891193 -0.0027693391 0 36 255 41.929816086008934
-0.066700846 0.95770895 0.10705088 164 0 0 246.22004856740105
-0.028883964 0.79609853 0.09192412 255 76 0 204.49514285853573
0.030639805 -0.13257053 -0.020581089 0 0 172 11.0751087478393
-0.0007103904 -0.56222695 0.025007159 0 0 252 31.27284559223318
0.011277558 -0.613847 -0.040775303 0 40 255 42.081837615534944
-0.017898161 -0.15960962 -0.016780492 0 0 172 11.206576167773894
0.02243354 0.47951454 -0.010086903 102 255 154 121.1507463479347
-0.017406544 0.50689393 0.031001134 130 255 126 128.57524153846668
0.023416778 0.40473166 -0.007685532 18 255 238 100.85610680356524
-0.05217916 0.93783617 -0.07454577 184 0 0 241.5501335669117
0.042835742 -0.60091364 -0.062009472 0 24 255 38.65005850912649
0.0042814366 0.1995562 -0.04440572 0 52 255 45.27251573502857
0.031490676 -0.20309901 0.028524129 0 0 160 8.10860039422713
0.035858527 -0.42589715 -0.043554842 0 0 152 6.607632838545569
-0.002109615 0.16066153 0.045409363 0 8 255 34.7633431184314
0.011277558 -0.58928496 0.008708084 0 20 255 37.67335637752415
0.011277558 -0.37053323 -0.04985135 0 0 152 6.342261660206473
0.02422984 0.20745993 0.057038054 0 56 255 46.956072214372256
0.0054537603 0.24276198 0.052310944 0 96 255 56.358248516195665
0.033154625 -0.32728964 0.030604057 0 0 144 4.14568785221943
0.01887875 -0.2924792 0.045409363 0 0 148 5.512325623097381
0.011277558 -0.6189145 -0.007496448 0 48 255 44.111766870679666
-0.0037546502 -0.3708547 -0.010881059 0 0 144 4.513782981878196
0.01887875 -0.6941701 0.02028005 0 116 255 61.504447717564545
-0.020923514 0.82453686 0.05115753 255 48 0 211.88310628534407
-0.018143972 -0.12697364 -0.015853977 0 0 172 11.783737096133189
0.01887875 -0.5439425 0.02366466 0 0 236 27.720760624713677
0.027311917 0.11308791 -0.004319831 0 0 216 22.825637418995026
-0.053086765 0.9013429 -0.115274556 224 0 0 231.9800096705643
-0.01963774 0.080376305 -0.009481834 0 0 184 14.904630094453928
-0.034329597 0.8731315 -0.004319831 252 0 0 224.57130408344932
-0.011582743 -0.69475627 0.03506645 0 116 255 61.37417017604934
-0.025348086 -0.2619988 -0.032531224 0 0 164 9.041621506595764
0.029996911 -0.09237119 0.040568806 0 0 168 10.069208830407367
0.011277558 -0.7974669 0.038224157 0 200 255 82.97358879097916
-0.011582743 -0.5278137 -0.050891317 0 0 208 20.48209282414329
0.031925578 -0.42952755 0.0472813 0 0 164 9.614608707576282
-0.0710687 0.91463554 0.065660305 208 0 0 235.18892038860733
0.026858114 -0.5278137 0.05609263 0 0 224 24.935087164198542
-0.017898161 -0.15960962 -0.016780492 0 0 172 11.206576167773894
-0.011582743 -0.6564288 -0.054975536 0 72 255 50.404622781914405
-0.013624855 0.114581674 0.029545182 0 0 216 22.523032199040003
-0.005721127 0.6609221 0.04928559 255 216 0 169.4022699845587
0.022471355 0.46756443 0.053161826 86 255 170 117.87071584789032
0.03370297 -0.3626106 -0.014152219 0 0 144 4.5304346230871415
-0.009332639 -0.22355793 -0.0376365 0 0 164 9.869625447418269
0.011277558 -0.32753545 -0.0015781064 0 0 148 5.5874676934059515
0.035083286 -0.30376753 -0.061877117 0 0 156 7.815101488553076
0.0286166 0.023083735 -0.05522135 0 0 184 14.160520070943576
-0.010353695 -0.058600727 -0.033798087 0 0 180 13.07932165163465
0.020032167 0.65853965 -0.007156097 255 220 0 168.88217163119575
0.011277558 -0.18175139 -0.041248012 0 0 168 10.937933239822888
0.021752834 0.5233821 0.04194912 150 255 106 133.03441991797152
0.017044634 -0.41481683 -0.06698239 0 0 144 4.61235483997217
0.01887875 -0.60966825 0.0432538 0 44 255 43.309698951068576
-0.0048513394 -0.18799116 0.043575242 0 0 160 8.494159277918145
0.01887875 -0.5514114 0.004548228 0 0 244 29.018124173264543
-0.0034899318 -0.8613018 0.033648316 0 248 255 94.85687627459178
-0.009805351 0.78679556 -0.027898654 255 84 0 202.007095434436
0.0214503 0.5498917 0.004831854 178 255 78 140.5728239169654
0.0030902058 -0.28654194 -0.010049088 0 0 156 7.332175602678069
0.007363514 -0.1802009 0.048321262 0 0 160 8.46111560533721
-0.011582743 -0.52180076 0.04132514 0 0 216 22.167942523713428
-0.006666549 0.4117467 -0.031131996 26 255 230 102.94936754560258
0.035858527 -0.41025987 0.04452067 0 0 152 6.9253536748408715
-0.032419845 0.79273283 -0.06571553 255 80 0 203.48540703934617
-0.07057707 0.9163751 -0.102265544 208 0 0 235.8372260614523
-0.0215664 0.60724103 -0.0018428247 242 255 14 156.00227526681616
-0.012963059 0.65557104 -0.00844187 255 220 0 168.2157332097387
0.021015408 0.5782355 0.03661694 210 255 46 148.42427743935502
0.011277558 -0.5522055 -0.016005246 0 0 240 28.43055388894263
0.025477797 0.1715717 0.056905694 0 20 255 37.62025618087264
-0.011582743 -0.57340187 -0.039168086 0 0 252 31.963480981827175
0.030412897 -0.11767068 -0.0059837736 0 0 168 10.90560682262483
0.0002728471 -0.22444664 -0.049643356 0 0 168 10.076521174148334
-0.011582743 -0.58436877 -0.03209633 0 8 255 34.69163089346879
0.01887875 -0.78128123 -0.00965201 0 188 255 79.41781270411113
0.007703863 0.14215016 0.052424394 0 0 244 29.833185898048477
0.011277558 -0.6922603 -0.025686366 0 108 255 59.92066129556233
0.011277558 -0.28415948 -0.04478389 0 0 160 8.198343853698931
-0.011582743 -0.20952788 -0.05478646 0 0 168 10.905718321721471
-0.017519994 0.81400484 -0.023077002 255 56 0 209.12032508711857
-0.007536337 -0.6204461 0.05673552 0 52 255 45.19127782604837
0.011277558 -0.70086366 -0.037939038 0 116 255 61.09009710445558
-0.01428665 0.7676035 0.08434185 255 104 0 197.09039132893747
0.01887875 -0.27260643 0.044917744 0 0 152 6.169509619533169
-0.019959182 -0.18029542 0.010428753 0 0 164 9.846711550975536
-0.010996582 -0.20067874 0.050646998 0 0 160 8.126741463667338
-0.040002126 0.8065549 -0.02941133 255 64 0 207.05569465043388
-0.011582743 -0.29234686 -0.04406537 0 0 160 8.356574385158838
-0.03415942 0.8337831 -0.09733044 255 36 0 214.29464203082867
0.01887875 -0.67352206 0.020355683 0 100 255 57.02007387054988
0.0017287984 0.6637962 -0.03281485 255 212 0 170.32211423353613
0.020202342 -0.7770269 -0.045483503 0 176 255 76.67260509484892
-0.024610657 -0.31906447 -0.0076288073 0 0 152 6.418059411769923
-0.072014116 0.91732055 0.09782356 208 0 0 235.79017677100063
-0.011582743 -0.28654194 -0.036086008 0 0 160 8.282269390157893
-0.017765803 0.56014013 -0.012942079 190 255 66 143.3641621972562
-0.0023365163 -0.059338156 0.041930214 0 0 168 10.917029655450953
0.009443442 0.32550532 0.055185027 0 184 255 78.87580727450649
-0.024421575 -0.3419248 0.05166806 0 0 140 3.149526632004642
-0.021169322 0.45323184 0.018672831 70 255 186 113.95870181141687
0.020561604 0.2571324 0.057208233 0 112 255 60.16984014240402
-0.0576437 0.86870694 -0.010975601 255 0 0 223.29833720290998
-0.038470544 0.9060322 0.10990605 220 0 0 232.96378450605812
0.020202342 -0.7834746 0.0396612 0 192 255 80.29285095789471
0.01613703 0.048250865 -0.054162476 0 0 184 14.68173008694169
0.009953969 0.6295719 -0.020997074 255 248 0 161.61984605214982
-0.025064461 -0.29038036 0.030244797 0 0 152 6.461339367088838
-0.01733091 -0.32853758 -0.019314222 0 0 152 6.648424866260308
0.028786775 0.008297334 -0.04022696 0 0 180 13.524870377650279
0.031868853 -0.2203057 -0.058643777 0 0 168 10.003272924317056
0.0124877 0.6830828 -0.030224392 255 192 0 175.16462317896475
0.022490265 -0.0008543527 -0.05643149 0 0 180 13.97306845533537
-0.018862493 0.30610526 0.021868357 0 164 255 73.84406272792339
-0.0042273602 -0.17456618 -0.04359266 0 0 172 11.495212381501863
-0.0037546502 -0.56721884 0.0542207 0 0 255 32.985604849903325
0.01354657 0.3666879 0.057586398 0 232 255 90.06634920651702
0.028087161 -0.50544494 0.015836565 0 0 200 18.896675519831987
-0.06371331 0.9774305 -0.101755016 144 0 0 251.92515446442675
-0.0048891567 0.7696078 -0.040945478 255 104 0 197.5214102249116
0.003449466 0.2381294 -0.04298759 0 92 255 55.76139884436815
-0.0017314468 -0.55647886 -0.057017654 0 0 236 27.966068622319707
0.011277558 -0.32488826 0.024647899 0 0 144 4.785927314296884
0.00897073 -0.66011596 0.05673552 0 88 255 54.605555940271486
-0.017519994 -0.1983341 -0.0181419 0 0 168 10.10406477935014
0.021166673 0.5756451 -0.029486965 206 255 50 147.89117196749427
0.020561604 -0.50544494 -0.00795025 0 0 200 18.39307903277206
0.008706012 -0.38647306 0.04533373 0 0 132 1.793920615031758
0.01887875 -0.6081745 0.00778157 0 40 255 42.232274859389264
0.011277558 -0.44446522 0.031171309 0 0 172 11.424197441934666
-0.007536337 -0.6204461 0.05673552 0 52 255 45.19127782604837
0.020788504 -0.56222695 -0.008536412 0 0 252 31.3120433492825
0.031755395 -0.22338776 0.03217346 0 0 156 7.588021096999574
0.015910126 0.46658117 -0.04259051 86 255 170 117.91267944820261
0.0022204162 -0.25451106 -0.051761106 0 0 164 9.397222080768143
-0.011582743 -0.3108204 -0.056053326 0 0 160 8.39120067924584
-0.011582743 -0.19873117 0.041646585 0 0 160 8.377373127096616
0.01887875 -0.8428282 -0.013944226 0 232 255 90.46438433987258
-0.0070258095 0.41811883 0.044426125 34 255 222 104.2025508252333
0.011277558 -0.6506429 -0.06611261 0 64 255 48.94409777916706
-0.0058913035 0.2961972 0.04372651 0 152 255 70.98821473147993
0.02835188 -0.7874832 -0.055883143 0 184 255 78.33246385574213
-0.0035844739 -0.3204637 -0.046731457 0 0 156 7.678298753635883
0.019672906 0.6808327 0.026406385 255 196 0 174.47227702711183
0.007703863 -0.29590163 0.05673552 0 0 148 5.192745913802838
0.01887875 -0.53764606 -0.014152219 0 0 228 25.214467288739606
0.002598586 -0.85360605 0.038243067 0 244 255 93.34014241381193
0.011277558 -0.5722863 -0.004244196 0 4 255 33.39809159751618
-0.025404813 -0.2579524 -0.023474079 0 0 160 8.857436648102604
-0.0042273602 0.38268444 -0.034100622 0 252 255 95.05650292588705
0.022603713 0.36844638 -0.04550241 0 236 255 91.2358182987227
0.014662169 -0.31002623 -0.068041265 0 0 160 8.381054261451421
-0.035237204 0.87577873 0.022265434 248 0 0 225.241763129048
-0.02167985 0.7470311 -0.06036444 255 128 0 191.52793770898862
0.01887875 -0.797032 0.050703727 0 200 255 82.70747539477287
0.01887875 -0.6941701 0.02028005 0 116 255 61.504447717564545
0.01887875 -0.6623472 -0.0049816268 0 88 255 54.125477441774905
-0.04639318 0.91692346 -0.055240255 204 0 0 236.06515018497592
0.035858527 -0.390614 0.019069908 0 0 132 1.6942786984431455
0.024418924 -0.71493155 -0.029468056 0 128 255 64.4873780575299
-0.0068367254 0.6340721 -0.019786935 255 244 0 162.79535939389285
-0.018503232 0.4254364 0.026519835 42 255 214 106.29508599105966
0.011277558 -0.6236794 0.006855057 0 52 255 45.49303432153641
-0.024799742 -0.30753034 0.008764809 0 0 152 6.389527292188933
-0.053351484 0.8975423 -0.0083662355 228 0 0 230.8997931089721
-0.021263864 0.4209551 0.016819805 38 255 218 105.14324374111715
-0.024894284 -0.3049588 0.040096093 0 0 148 5.598962085353802
0.01887875 -0.73798096 0.017803043 0 152 255 70.97665876540408
0.023397868 -0.38745627 0.05609263 0 0 136 2.630711350335898
0.033154625 -0.32728964 0.030604057 0 0 144 4.14568785221943
0.011277558 -0.34260547 0.012716673 0 0 144 4.504160776254557
0.030356172 -0.5621135 -0.06698239 0 0 244 29.489372608973333
-0.024743017 -0.30505332 -0.04918956 0 0 160 8.424705325703936
0.011277558 -0.20873374 -0.055051174 0 0 168 10.56897107987531
